ply
format ascii 1.0
element vertex 838
property double x
property double y
property double z
end_header
1.700000000000000 -21.510000000000002 37.320000000000000
1.820000000000000 -21.510000000000002 37.570000000000000
1.940000000000000 -21.510000000000002 37.700000000000003
1.930000000000000 -21.510000000000002 37.820000000000000
2.180000000000000 -21.510000000000002 37.950000000000003
2.410000000000000 -22.120000000000001 38.329999999999998
2.530000000000000 -22.190000000000001 38.460000000000001
2.770000000000000 -22.420000000000002 38.840000000000003
3.120000000000000 -22.350000000000001 39.340000000000003
3.120000000000000 -22.350000000000001 39.340000000000003
3.470000000000000 -23.180000000000000 40.219999999999999
3.450000000000000 -23.410000000000000 40.960000000000001
3.430000000000000 -23.260000000000002 41.579999999999998
3.660000000000000 -23.180000000000000 42.079999999999998
4.020000000000000 -23.180000000000000 42.340000000000003
4.020000000000000 -23.180000000000000 42.340000000000003
4.390000000000000 -23.559999999999999 42.469999999999999
4.880000000000000 -23.559999999999999 42.609999999999999
5.130000000000000 -23.559999999999999 42.619999999999997
5.500000000000000 -24.320000000000000 42.630000000000003
5.620000000000000 -24.320000000000000 42.759999999999998
5.990000000000000 -24.320000000000000 42.770000000000003
6.240000000000000 -24.770000000000000 42.780000000000001
6.350000000000000 -25.219999999999999 43.030000000000001
6.730000000000000 -25.910000000000000 42.789999999999999
7.100000000000000 -26.510000000000002 42.799999999999997
7.340000000000000 -27.039999999999999 42.930000000000000
7.590000000000000 -27.039999999999999 43.060000000000002
7.830000000000000 -27.039999999999999 43.200000000000003
7.830000000000000 -27.039999999999999 43.320000000000000
7.950000000000000 -27.039999999999999 43.450000000000003
8.190000000000000 -27.570000000000000 43.700000000000003
8.430000000000000 -27.570000000000000 43.960000000000001
8.550000000000001 -27.570000000000000 44.079999999999998
8.910000000000000 -27.949999999999999 44.340000000000003
9.150000000000000 -27.949999999999999 44.600000000000001
9.760000000000000 -28.100000000000001 44.740000000000002
10.140000000000001 -28.100000000000001 44.500000000000000
10.140000000000001 -28.100000000000001 44.500000000000000
10.400000000000000 -28.100000000000001 44.259999999999998
10.650000000000000 -28.480000000000000 44.020000000000003
11.020000000000000 -28.480000000000000 44.030000000000001
11.250000000000000 -28.480000000000000 44.530000000000001
11.619999999999999 -28.710000000000001 44.549999999999997
11.880000000000001 -28.940000000000001 44.180000000000000
12.260000000000000 -28.780000000000001 43.950000000000003
12.390000000000001 -28.780000000000001 43.829999999999998
12.380000000000001 -28.780000000000001 44.070000000000000
12.369999999999999 -28.780000000000001 44.320000000000000
12.359999999999999 -29.239999999999998 44.820000000000000
12.730000000000000 -29.239999999999998 44.829999999999998
13.220000000000001 -29.010000000000002 44.840000000000003
13.220000000000001 -29.010000000000002 44.960000000000001
13.590000000000000 -29.620000000000001 44.979999999999997
13.840000000000000 -29.620000000000001 44.979999999999997
14.330000000000000 -29.620000000000001 45.119999999999997
14.580000000000000 -29.620000000000001 45.009999999999998
15.070000000000000 -30.530000000000001 45.140000000000001
15.190000000000000 -30.750000000000000 45.270000000000003
15.430000000000000 -30.829999999999998 45.399999999999999
15.550000000000001 -30.910000000000000 45.649999999999999
15.800000000000001 -31.129999999999999 45.659999999999997
16.410000000000000 -31.210000000000001 45.680000000000000
16.660000000000000 -31.210000000000001 45.810000000000002
16.899999999999999 -31.210000000000001 45.939999999999998
17.640000000000001 -32.039999999999999 45.960000000000001
17.879999999999999 -32.500000000000000 46.090000000000003
18.129999999999999 -32.500000000000000 46.100000000000001
18.370000000000001 -32.649999999999999 46.359999999999999
18.620000000000001 -32.649999999999999 46.359999999999999
18.859999999999999 -32.649999999999999 46.619999999999997
18.980000000000000 -32.649999999999999 46.750000000000000
19.100000000000001 -32.649999999999999 46.869999999999997
19.350000000000001 -33.030000000000001 46.880000000000003
19.699999999999999 -33.560000000000002 47.259999999999998
20.320000000000000 -33.710000000000001 47.530000000000001
20.690000000000001 -33.859999999999999 47.539999999999999
20.690000000000001 -33.859999999999999 47.539999999999999
20.800000000000001 -33.859999999999999 47.789999999999999
21.670000000000002 -33.939999999999998 47.689999999999998
22.039999999999999 -34.009999999999998 47.700000000000003
22.160000000000000 -34.009999999999998 47.829999999999998
22.280000000000001 -34.009999999999998 47.829999999999998
22.649999999999999 -34.009999999999998 48.090000000000003
22.760000000000002 -34.009999999999998 48.469999999999999
23.109999999999999 -34.469999999999999 49.219999999999999
23.350000000000001 -34.090000000000003 49.469999999999999
23.600000000000001 -34.090000000000003 49.479999999999997
23.840000000000000 -34.090000000000003 49.490000000000002
24.329999999999998 -34.090000000000003 49.869999999999997
24.440000000000001 -34.090000000000003 50.130000000000003
24.550000000000001 -32.570000000000000 50.619999999999997
24.789999999999999 -32.570000000000000 51.000000000000000
25.020000000000000 -32.570000000000000 51.500000000000000
25.140000000000001 -32.570000000000000 51.750000000000000
25.379999999999999 -32.570000000000000 52.009999999999998
25.379999999999999 -32.570000000000000 52.009999999999998
25.370000000000001 -32.570000000000000 52.259999999999998
25.489999999999998 -32.570000000000000 52.380000000000003
25.600000000000001 -31.440000000000001 52.880000000000003
25.590000000000000 -31.440000000000001 53.250000000000000
25.710000000000001 -31.359999999999999 53.380000000000003
25.690000000000001 -31.359999999999999 53.750000000000000
25.440000000000001 -31.359999999999999 54.109999999999999
25.430000000000000 -31.280000000000001 54.359999999999999
25.410000000000000 -30.449999999999999 55.100000000000001
25.510000000000002 -29.850000000000001 55.850000000000001
26.230000000000000 -29.770000000000000 56.490000000000002
26.340000000000000 -29.469999999999999 56.859999999999999
26.449999999999999 -29.469999999999999 57.359999999999999
26.320000000000000 -28.710000000000001 57.479999999999997
26.070000000000000 -28.710000000000001 57.840000000000003
25.809999999999999 -27.949999999999999 58.210000000000001
25.680000000000000 -27.719999999999999 58.200000000000003
25.420000000000002 -27.649999999999999 58.689999999999998
25.289999999999999 -27.719999999999999 58.930000000000000
25.280000000000001 -27.800000000000001 59.430000000000000
25.270000000000000 -27.800000000000001 59.680000000000000
25.520000000000000 -27.800000000000001 59.680000000000000
25.640000000000001 -26.820000000000000 59.810000000000002
26.030000000000001 -26.510000000000002 59.200000000000003
26.520000000000000 -26.440000000000001 59.340000000000003
27.010000000000002 -26.440000000000001 59.359999999999999
27.010000000000002 -26.440000000000001 59.359999999999999
27.120000000000001 -26.440000000000001 59.729999999999997
27.239999999999998 -26.440000000000001 59.979999999999997
27.230000000000000 -26.440000000000001 60.350000000000001
27.219999999999999 -26.440000000000001 60.719999999999999
27.210000000000001 -26.440000000000001 61.090000000000003
27.320000000000000 -26.440000000000001 61.350000000000001
27.559999999999999 -25.449999999999999 61.600000000000001
27.550000000000001 -24.539999999999999 62.090000000000003
27.780000000000001 -24.390000000000001 62.469999999999999
28.030000000000001 -24.390000000000001 62.479999999999997
28.030000000000001 -24.390000000000001 62.359999999999999
28.410000000000000 -24.390000000000001 62.240000000000002
28.780000000000001 -23.100000000000001 62.259999999999998
29.530000000000001 -22.800000000000001 62.030000000000001
29.520000000000000 -22.570000000000000 62.399999999999999
29.489999999999998 -22.500000000000000 63.390000000000001
29.840000000000000 -22.350000000000001 63.899999999999999
30.219999999999999 -21.590000000000000 63.659999999999997
30.469999999999999 -21.590000000000000 63.670000000000002
30.590000000000000 -21.590000000000000 63.670000000000002
30.699999999999999 -20.070000000000000 64.040000000000006
31.190000000000001 -19.620000000000001 64.310000000000002
31.300000000000001 -19.469999999999999 64.680000000000007
31.670000000000002 -19.390000000000001 64.819999999999993
31.670000000000002 -19.390000000000001 64.939999999999998
31.789999999999999 -19.390000000000001 64.939999999999998
32.280000000000001 -18.260000000000002 65.209999999999994
32.270000000000003 -16.820000000000000 65.329999999999998
32.369999999999997 -16.510000000000002 66.200000000000003
32.500000000000000 -16.440000000000001 65.950000000000003
32.369999999999997 -16.440000000000001 66.069999999999993
32.359999999999999 -15.680000000000000 66.569999999999993
32.460000000000001 -15.680000000000000 67.189999999999998
32.579999999999998 -15.680000000000000 67.319999999999993
32.579999999999998 -15.680000000000000 67.439999999999998
32.570000000000000 -15.680000000000000 67.810000000000002
32.689999999999998 -15.680000000000000 68.060000000000002
32.430000000000000 -15.680000000000000 68.299999999999997
32.539999999999999 -14.850000000000000 68.799999999999997
32.530000000000001 -14.770000000000000 69.299999999999997
32.640000000000001 -14.770000000000000 69.549999999999997
32.390000000000001 -14.770000000000000 69.540000000000006
32.390000000000001 -14.770000000000000 69.540000000000006
32.259999999999998 -14.770000000000000 69.780000000000001
32.250000000000000 -14.770000000000000 70.150000000000006
32.240000000000002 -14.770000000000000 70.650000000000006
32.219999999999999 -14.770000000000000 71.140000000000001
32.329999999999998 -14.470000000000001 71.760000000000005
32.560000000000002 -13.640000000000001 72.140000000000001
32.920000000000002 -13.560000000000000 72.650000000000006
33.280000000000001 -13.330000000000000 73.150000000000006
33.020000000000003 -12.270000000000000 73.269999999999996
32.640000000000001 -11.740000000000000 73.629999999999995
32.640000000000001 -11.590000000000000 73.879999999999995
32.509999999999998 -11.510000000000000 73.870000000000005
32.630000000000003 -11.359999999999999 74.120000000000005
32.500000000000000 -10.830000000000000 74.239999999999995
32.369999999999997 -10.830000000000000 74.359999999999999
32.250000000000000 -10.830000000000000 74.480000000000004
32.359999999999999 -10.300000000000001 74.859999999999999
32.479999999999997 -10.300000000000001 75.109999999999999
32.479999999999997 -10.230000000000000 75.109999999999999
32.829999999999998 -10.230000000000000 75.489999999999995
32.950000000000003 -9.850000000000000 75.739999999999995
32.950000000000003 -9.850000000000000 75.739999999999995
33.189999999999998 -9.850000000000000 75.870000000000005
33.180000000000000 -9.850000000000000 76.239999999999995
33.549999999999997 -9.850000000000000 76.500000000000000
33.780000000000001 -9.470000000000001 76.879999999999995
33.759999999999998 -8.859999999999999 77.620000000000005
33.630000000000003 -8.330000000000000 77.739999999999995
33.630000000000003 -8.029999999999999 77.989999999999995
33.500000000000000 -8.029999999999999 77.980000000000004
33.380000000000003 -8.029999999999999 77.980000000000004
33.490000000000002 -7.880000000000000 78.230000000000004
33.609999999999999 -7.800000000000000 78.609999999999999
33.729999999999997 -7.800000000000000 78.609999999999999
33.729999999999997 -7.730000000000000 78.730000000000004
33.719999999999999 -7.730000000000000 78.980000000000004
33.960000000000001 -7.730000000000000 79.359999999999999
34.079999999999998 -6.820000000000000 79.489999999999995
34.320000000000000 -6.820000000000000 79.739999999999995
34.549999999999997 -5.830000000000000 80.000000000000000
34.670000000000002 -5.230000000000000 80.120000000000005
34.920000000000002 -4.850000000000000 80.250000000000000
34.920000000000002 -4.850000000000000 80.250000000000000
35.159999999999997 -4.850000000000000 80.379999999999995
35.270000000000003 -4.390000000000000 80.760000000000005
35.390000000000001 -4.390000000000000 81.129999999999995
35.380000000000003 -4.010000000000000 81.379999999999995
35.380000000000003 -3.940000000000000 81.500000000000000
35.119999999999997 -3.790000000000000 81.870000000000005
34.750000000000000 -3.710000000000000 81.859999999999999
34.630000000000003 -3.110000000000000 81.730000000000004
34.619999999999997 -3.110000000000000 81.849999999999994
34.619999999999997 -3.110000000000000 82.099999999999994
34.850000000000001 -2.650000000000000 82.480000000000004
34.960000000000001 -2.270000000000000 83.099999999999994
35.329999999999998 -2.120000000000000 83.109999999999999
35.450000000000003 -1.970000000000000 83.239999999999995
35.560000000000002 -1.890000000000000 83.609999999999999
35.560000000000002 -1.890000000000000 83.609999999999999
35.680000000000000 -1.890000000000000 83.620000000000005
35.789999999999999 -1.210000000000000 84.239999999999995
36.030000000000001 -1.140000000000000 84.370000000000005
36.390000000000001 -1.060000000000000 84.629999999999995
36.270000000000003 -0.980000000000000 84.750000000000000
36.020000000000003 -0.450000000000000 84.620000000000005
35.520000000000003 -0.080000000000000 84.849999999999994
35.140000000000001 0.300000000000000 85.090000000000003
35.130000000000003 0.830000000000000 85.459999999999994
35.369999999999997 1.140000000000000 85.829999999999998
35.369999999999997 1.140000000000000 85.959999999999994
35.359999999999999 1.140000000000000 86.200000000000003
35.710000000000001 1.210000000000000 86.709999999999994
36.079999999999998 1.360000000000000 86.719999999999999
36.210000000000001 1.440000000000000 86.599999999999994
36.460000000000001 1.440000000000000 86.489999999999995
36.469999999999999 1.440000000000000 86.239999999999995
36.590000000000003 1.440000000000000 86.239999999999995
36.600000000000001 1.440000000000000 86.120000000000005
37.090000000000003 1.890000000000000 86.129999999999995
37.350000000000001 2.050000000000000 85.890000000000001
37.460000000000001 2.200000000000000 86.390000000000001
37.700000000000003 2.270000000000000 86.400000000000006
37.710000000000001 2.270000000000000 86.280000000000001
37.810000000000002 2.350000000000000 86.769999999999996
37.939999999999998 2.420000000000000 86.780000000000001
38.310000000000002 2.420000000000000 86.909999999999997
38.799999999999997 3.410000000000000 86.799999999999997
39.039999999999999 3.560000000000000 87.299999999999997
39.140000000000001 3.560000000000000 87.799999999999997
39.259999999999998 3.710000000000000 88.180000000000007
25.059999999999999 -34.159999999999997 50.140000000000001
25.430000000000000 -34.770000000000003 50.030000000000001
25.680000000000000 -35.219999999999999 50.039999999999999
26.039999999999999 -35.219999999999999 50.299999999999997
26.420000000000002 -35.380000000000003 50.310000000000002
26.789999999999999 -35.380000000000003 50.320000000000000
27.280000000000001 -35.380000000000003 50.329999999999998
27.410000000000000 -35.380000000000003 50.090000000000003
27.660000000000000 -35.380000000000003 50.100000000000001
28.160000000000000 -35.380000000000003 49.990000000000002
28.410000000000000 -35.380000000000003 49.869999999999997
28.530000000000001 -36.810000000000002 50.000000000000000
28.770000000000000 -37.500000000000000 50.009999999999998
28.890000000000001 -37.649999999999999 50.380000000000003
29.120000000000001 -37.719999999999999 50.759999999999998
29.370000000000001 -37.719999999999999 50.770000000000003
29.370000000000001 -37.719999999999999 50.770000000000003
29.620000000000001 -37.719999999999999 50.770000000000003
29.870000000000001 -37.719999999999999 50.530000000000001
30.239999999999998 -38.250000000000000 50.549999999999997
30.489999999999998 -38.250000000000000 50.549999999999997
30.859999999999999 -38.250000000000000 50.689999999999998
31.100000000000001 -38.250000000000000 50.700000000000003
31.590000000000000 -38.780000000000001 50.829999999999998
31.840000000000000 -38.780000000000001 50.840000000000003
32.090000000000003 -38.780000000000001 50.850000000000001
32.210000000000001 -38.859999999999999 50.979999999999997
32.570000000000000 -39.840000000000003 51.109999999999999
32.820000000000000 -40.149999999999999 51.240000000000002
33.180000000000000 -40.149999999999999 51.619999999999997
33.299999999999997 -40.149999999999999 51.500000000000000
33.549999999999997 -40.149999999999999 51.630000000000003
33.670000000000002 -40.369999999999997 51.640000000000001
34.039999999999999 -40.369999999999997 51.649999999999999
34.659999999999997 -40.369999999999997 51.670000000000002
35.030000000000001 -41.359999999999999 51.680000000000000
35.390000000000001 -42.119999999999997 52.180000000000000
36.000000000000000 -42.649999999999999 52.450000000000003
36.109999999999999 -42.649999999999999 52.700000000000003
36.479999999999997 -42.649999999999999 52.710000000000001
36.600000000000001 -42.649999999999999 52.960000000000001
36.969999999999999 -42.649999999999999 52.969999999999999
37.350000000000001 -42.649999999999999 52.859999999999999
37.469999999999999 -42.649999999999999 52.740000000000002
38.439999999999998 -43.329999999999998 53.509999999999998
38.680000000000000 -43.710000000000001 53.640000000000001
38.920000000000002 -43.710000000000001 54.020000000000003
39.039999999999999 -43.710000000000001 54.030000000000001
39.170000000000002 -43.710000000000001 54.030000000000001
39.409999999999997 -43.710000000000001 54.159999999999997
39.780000000000001 -43.710000000000001 54.299999999999997
40.270000000000003 -44.090000000000003 54.430000000000000
40.390000000000001 -44.310000000000002 54.560000000000002
40.509999999999998 -44.689999999999998 54.439999999999998
40.880000000000003 -45.369999999999997 54.700000000000003
41.490000000000002 -45.750000000000000 54.960000000000001
42.219999999999999 -46.060000000000002 55.109999999999999
42.469999999999999 -46.060000000000002 55.240000000000002
42.579999999999998 -46.060000000000002 55.490000000000002
42.710000000000001 -46.130000000000003 55.369999999999997
42.829999999999998 -46.130000000000003 55.500000000000000
42.810000000000002 -46.590000000000003 56.119999999999997
43.060000000000002 -46.890000000000001 56.130000000000003
43.159999999999997 -46.969999999999999 56.750000000000000
43.409999999999997 -46.969999999999999 56.750000000000000
43.659999999999997 -46.969999999999999 56.759999999999998
43.780000000000001 -46.969999999999999 57.009999999999998
43.630000000000003 -46.890000000000001 57.630000000000003
43.500000000000000 -47.500000000000000 57.869999999999997
43.359999999999999 -48.329999999999998 58.479999999999997
43.359999999999999 -49.840000000000003 58.479999999999997
43.359999999999999 -50.070000000000000 58.609999999999999
43.229999999999997 -50.530000000000001 58.850000000000001
43.100000000000001 -50.530000000000001 58.969999999999999
43.100000000000001 -50.530000000000001 58.969999999999999
42.969999999999999 -50.530000000000001 59.219999999999999
42.840000000000003 -51.659999999999997 59.460000000000001
42.450000000000003 -53.100000000000001 60.070000000000000
42.439999999999998 -53.479999999999997 60.310000000000002
42.310000000000002 -54.390000000000001 60.680000000000000
42.049999999999997 -54.770000000000003 60.920000000000002
41.909999999999997 -55.369999999999997 61.409999999999997
41.899999999999999 -55.369999999999997 61.909999999999997
41.780000000000001 -55.369999999999997 61.780000000000001
41.649999999999999 -55.369999999999997 62.020000000000003
41.509999999999998 -56.210000000000001 62.390000000000001
41.380000000000003 -56.280000000000001 62.759999999999998
41.119999999999997 -56.280000000000001 63.119999999999997
40.869999999999997 -56.280000000000001 63.109999999999999
40.869999999999997 -56.280000000000001 63.240000000000002
44.630000000000003 -46.890000000000001 57.289999999999999
45.380000000000003 -46.890000000000001 57.180000000000000
47.229999999999997 -47.189999999999998 57.359999999999999
48.219999999999999 -46.890000000000001 57.390000000000001
48.859999999999999 -46.280000000000001 56.670000000000002
49.130000000000003 -46.430000000000000 55.810000000000002
49.640000000000001 -46.509999999999998 55.079999999999998
49.789999999999999 -46.509999999999998 54.469999999999999
49.930000000000000 -46.509999999999998 53.729999999999997
49.930000000000000 -46.509999999999998 53.729999999999997
49.950000000000003 -46.509999999999998 53.240000000000002
50.079999999999998 -46.509999999999998 52.869999999999997
50.219999999999999 -46.509999999999998 52.500000000000000
50.469999999999999 -46.509999999999998 52.140000000000001
50.229999999999997 -46.590000000000003 52.009999999999998
50.619999999999997 -46.130000000000003 51.530000000000001
50.530000000000001 -45.600000000000001 50.409999999999997
50.299999999999997 -45.530000000000001 49.659999999999997
50.219999999999999 -45.219999999999999 48.420000000000002
50.479999999999997 -44.689999999999998 47.810000000000002
50.500000000000000 -44.469999999999999 47.189999999999998
50.270000000000003 -44.390000000000001 46.689999999999998
50.390000000000001 -44.390000000000001 46.689999999999998
50.270000000000003 -44.390000000000001 46.439999999999998
50.030000000000001 -44.390000000000001 46.189999999999998
49.920000000000002 -44.390000000000001 45.939999999999998
49.920000000000002 -44.390000000000001 45.810000000000002
-3.050000000000000 -2.650000000000000 25.079999999999998
-3.210000000000000 -3.180000000000000 25.809999999999999
-3.360000000000000 -3.180000000000000 26.300000000000001
-3.500000000000000 -3.180000000000000 26.660000000000000
-3.640000000000000 -3.110000000000000 26.899999999999999
-3.540000000000000 -3.110000000000000 27.280000000000001
-3.560000000000000 -3.110000000000000 27.649999999999999
-3.450000000000000 -3.860000000000000 27.899999999999999
-3.580000000000000 -3.790000000000000 28.020000000000000
-3.600000000000000 -3.790000000000000 28.510000000000002
-3.720000000000000 -3.330000000000000 28.379999999999999
-3.850000000000000 -2.350000000000000 28.500000000000000
-3.850000000000000 -1.440000000000000 28.500000000000000
-4.110000000000000 -1.060000000000000 28.609999999999999
-3.940000000000000 -1.060000000000000 28.690000000000001
-3.940000000000000 0.150000000000000 28.690000000000001
-3.700000000000000 0.380000000000000 28.829999999999998
-3.700000000000000 0.830000000000000 28.829999999999998
-3.450000000000000 1.360000000000000 28.840000000000000
-3.820000000000000 2.880000000000000 28.820000000000000
-3.560000000000000 2.880000000000000 28.590000000000000
-3.050000000000000 3.030000000000000 28.370000000000001
-1.930000000000000 3.030000000000000 28.180000000000000
-1.930000000000000 2.730000000000000 28.300000000000001
-2.320000000000000 2.500000000000000 28.649999999999999
-2.580000000000000 2.350000000000000 28.760000000000002
-3.100000000000000 2.270000000000000 29.230000000000000
-3.630000000000000 2.270000000000000 29.949999999999999
-4.150000000000000 2.270000000000000 30.289999999999999
-3.650000000000000 2.200000000000000 30.320000000000000
-3.650000000000000 1.890000000000000 30.190000000000001
-3.390000000000000 2.270000000000000 29.960000000000001
-2.730000000000000 2.730000000000000 29.250000000000000
-2.100000000000000 2.800000000000000 29.160000000000000
-1.590000000000000 2.800000000000000 28.820000000000000
-1.340000000000000 2.880000000000000 28.710000000000001
-0.820000000000000 2.950000000000000 28.370000000000001
-0.460000000000000 2.950000000000000 28.510000000000002
-0.120000000000000 2.950000000000000 29.020000000000000
-0.250000000000000 2.950000000000000 29.260000000000002
-0.510000000000000 2.950000000000000 29.500000000000000
-0.900000000000000 2.950000000000000 29.719999999999999
-1.150000000000000 2.950000000000000 29.829999999999998
-1.400000000000000 2.950000000000000 29.820000000000000
-1.900000000000000 2.650000000000000 29.920000000000002
-2.280000000000000 2.650000000000000 30.140000000000001
-2.560000000000000 2.650000000000000 30.620000000000001
-2.560000000000000 2.650000000000000 30.620000000000001
-2.690000000000000 2.650000000000000 30.859999999999999
-2.950000000000000 2.730000000000000 30.969999999999999
-3.080000000000000 2.730000000000000 31.210000000000001
-3.340000000000000 2.730000000000000 31.320000000000000
-3.580000000000000 2.800000000000000 31.309999999999999
-4.100000000000000 2.800000000000000 31.649999999999999
-4.620000000000000 2.500000000000000 32.250000000000000
-5.000000000000000 2.500000000000000 32.350000000000001
-5.150000000000000 2.500000000000000 32.710000000000001
-5.290000000000000 2.500000000000000 33.079999999999998
-5.310000000000000 2.950000000000000 33.450000000000003
-5.320000000000000 2.950000000000000 33.570000000000000
-5.330000000000000 2.950000000000000 33.820000000000000
-5.340000000000000 2.950000000000000 34.060000000000002
-5.360000000000000 2.950000000000000 34.430000000000000
-5.270000000000000 3.790000000000000 34.930000000000000
-5.400000000000000 4.170000000000000 35.049999999999997
-5.400000000000000 4.700000000000000 35.170000000000002
-5.420000000000000 4.850000000000000 35.420000000000002
-5.540000000000000 4.920000000000000 35.420000000000002
-5.790000000000000 5.680000000000000 35.530000000000001
-5.900000000000000 5.680000000000000 35.270000000000003
-6.140000000000000 5.760000000000000 35.130000000000003
-6.390000000000000 5.980000000000000 35.119999999999997
-6.650000000000000 5.980000000000000 35.350000000000001
-6.670000000000000 5.980000000000000 35.729999999999997
-6.680000000000000 5.980000000000000 35.850000000000001
-7.070000000000000 5.980000000000000 36.200000000000003
-7.330000000000000 5.980000000000000 36.430000000000000
-7.600000000000000 5.980000000000000 36.909999999999997
-7.860000000000000 5.980000000000000 37.149999999999999
-7.790000000000000 5.980000000000000 38.020000000000003
-7.920000000000000 5.980000000000000 38.259999999999998
-7.940000000000000 6.210000000000000 38.630000000000003
-7.860000000000000 6.210000000000000 39.380000000000003
-7.890000000000000 6.210000000000000 39.869999999999997
-7.780000000000000 6.510000000000000 40.119999999999997
-7.790000000000000 6.510000000000000 40.369999999999997
-7.570000000000000 6.510000000000000 40.880000000000003
-7.330000000000000 6.510000000000000 41.009999999999998
-7.210000000000000 6.510000000000000 41.140000000000001
-7.340000000000000 6.740000000000000 41.140000000000001
-7.340000000000000 6.970000000000000 41.140000000000001
-7.340000000000000 7.650000000000000 41.259999999999998
-7.710000000000000 7.730000000000000 41.240000000000002
-7.730000000000000 7.950000000000000 41.609999999999999
-7.620000000000000 7.950000000000000 41.869999999999997
-7.510000000000000 7.950000000000000 42.119999999999997
-7.290000000000000 8.029999999999999 42.500000000000000
-7.310000000000000 8.789999999999999 42.869999999999997
-7.200000000000000 8.789999999999999 43.250000000000000
-7.110000000000000 8.789999999999999 43.750000000000000
-7.000000000000000 8.789999999999999 44.000000000000000
-6.900000000000000 8.789999999999999 44.509999999999998
-6.430000000000000 8.789999999999999 44.899999999999999
-6.320000000000000 9.010000000000000 45.159999999999997
-6.210000000000000 9.010000000000000 45.530000000000001
-6.720000000000000 9.010000000000000 45.750000000000000
-7.450000000000000 9.010000000000000 45.469999999999999
-7.830000000000000 9.010000000000000 45.689999999999998
-7.850000000000000 9.010000000000000 46.060000000000002
-7.610000000000000 9.320000000000000 46.079999999999998
-7.250000000000000 9.699999999999999 46.340000000000003
-7.020000000000000 10.529999999999999 46.600000000000001
-6.910000000000000 10.680000000000000 46.979999999999997
-6.910000000000000 10.910000000000000 46.979999999999997
-6.800000000000000 10.910000000000000 47.240000000000002
-6.810000000000000 10.980000000000000 47.359999999999999
-6.820000000000000 10.980000000000000 47.479999999999997
-6.950000000000000 10.980000000000000 47.719999999999999
-6.860000000000000 10.980000000000000 48.219999999999999
-6.760000000000000 10.760000000000000 48.719999999999999
-7.010000000000000 11.140000000000001 48.710000000000001
-6.920000000000000 11.140000000000001 49.460000000000001
-6.820000000000000 12.039999999999999 49.829999999999998
-6.840000000000000 12.270000000000000 50.210000000000001
-6.720000000000000 12.270000000000000 50.210000000000001
-6.730000000000000 12.570000000000000 50.460000000000001
-6.740000000000000 12.730000000000000 50.710000000000001
-6.760000000000000 12.880000000000001 50.950000000000003
-6.670000000000000 12.949999999999999 51.700000000000003
-6.810000000000000 13.260000000000000 51.939999999999998
-7.200000000000000 13.410000000000000 52.289999999999999
-6.840000000000000 13.480000000000000 52.430000000000000
-6.600000000000000 13.710000000000001 52.570000000000000
-6.230000000000000 13.710000000000001 52.719999999999999
-5.890000000000000 13.789999999999999 53.229999999999997
-5.660000000000000 13.789999999999999 53.609999999999999
-5.400000000000000 13.789999999999999 53.259999999999998
-4.770000000000000 13.330000000000000 53.039999999999999
-4.500000000000000 13.330000000000000 52.689999999999998
-4.380000000000000 13.859999999999999 52.689999999999998
-4.240000000000000 14.470000000000001 52.450000000000003
-3.970000000000000 14.699999999999999 52.100000000000001
-3.720000000000000 14.920000000000000 52.109999999999999
-3.720000000000000 15.230000000000000 51.990000000000002
-3.580000000000000 16.210000000000001 51.750000000000000
-3.460000000000000 16.210000000000001 51.880000000000003
-3.460000000000000 16.210000000000001 51.880000000000003
-3.340000000000000 17.730000000000000 51.880000000000003
-3.340000000000000 18.940000000000001 51.880000000000003
-3.470000000000000 20.530000000000001 52.000000000000000
-3.580000000000000 20.680000000000000 51.750000000000000
-3.680000000000000 20.760000000000002 51.369999999999997
-3.790000000000000 20.829999999999998 50.990000000000002
-3.790000000000000 20.829999999999998 50.990000000000002
-3.660000000000000 20.829999999999998 51.000000000000000
-3.540000000000000 22.350000000000001 51.000000000000000
-3.190000000000000 22.420000000000002 51.390000000000001
-2.830000000000000 22.500000000000000 51.539999999999999
-2.830000000000000 22.500000000000000 51.539999999999999
-2.440000000000000 22.879999999999999 51.310000000000002
-2.200000000000000 23.180000000000000 51.450000000000003
-1.830000000000000 23.180000000000000 51.469999999999999
-1.350000000000000 23.480000000000000 51.619999999999997
-1.360000000000000 23.559999999999999 51.869999999999997
-0.590000000000000 24.390000000000001 51.409999999999997
-0.200000000000000 24.390000000000001 50.939999999999998
-4.920000000000000 13.410000000000000 53.649999999999999
-4.940000000000000 13.410000000000000 54.020000000000003
-4.470000000000000 13.480000000000000 54.420000000000002
-4.240000000000000 13.710000000000001 54.680000000000000
-3.880000000000000 13.560000000000000 54.950000000000003
-3.650000000000000 13.480000000000000 55.210000000000001
-3.540000000000000 13.480000000000000 55.590000000000003
-3.300000000000000 13.560000000000000 55.719999999999999
-3.330000000000000 13.560000000000000 56.219999999999999
-3.480000000000000 13.330000000000000 56.700000000000003
-3.500000000000000 13.330000000000000 57.070000000000000
-3.510000000000000 13.330000000000000 57.200000000000003
-3.530000000000000 13.330000000000000 57.570000000000000
-3.420000000000000 12.800000000000001 57.950000000000003
-3.190000000000000 12.800000000000001 58.210000000000001
-3.330000000000000 12.800000000000001 58.570000000000000
-3.230000000000000 12.570000000000000 58.950000000000003
-3.240000000000000 12.570000000000000 59.189999999999998
-3.370000000000000 12.570000000000000 59.310000000000002
-3.500000000000000 12.570000000000000 59.430000000000000
-3.640000000000000 12.270000000000000 59.670000000000002
-3.890000000000000 12.350000000000000 59.780000000000001
-4.020000000000000 12.570000000000000 59.890000000000001
-4.290000000000000 12.730000000000000 60.130000000000003
-4.050000000000000 12.730000000000000 60.390000000000001
-4.050000000000000 12.730000000000000 60.390000000000001
-3.830000000000000 12.880000000000001 60.770000000000003
-3.720000000000000 12.880000000000001 61.149999999999999
-3.600000000000000 12.949999999999999 61.159999999999997
-3.470000000000000 12.949999999999999 61.159999999999997
-3.490000000000000 12.949999999999999 61.409999999999997
-3.370000000000000 12.949999999999999 61.539999999999999
-3.130000000000000 12.500000000000000 61.680000000000000
-2.900000000000000 12.500000000000000 62.060000000000002
-2.920000000000000 12.500000000000000 62.310000000000002
-2.810000000000000 12.500000000000000 62.560000000000002
-2.950000000000000 12.500000000000000 62.930000000000000
-2.990000000000000 12.500000000000000 63.539999999999999
-3.140000000000000 12.800000000000001 64.030000000000001
-3.010000000000000 12.730000000000000 63.909999999999997
-3.020000000000000 13.789999999999999 64.159999999999997
-2.810000000000000 14.539999999999999 64.790000000000006
-2.810000000000000 15.000000000000000 64.909999999999997
-2.710000000000000 15.300000000000001 65.290000000000006
-2.460000000000000 15.529999999999999 65.299999999999997
-1.970000000000000 15.680000000000000 65.329999999999998
-1.830000000000000 15.680000000000000 65.090000000000003
-1.710000000000000 15.680000000000000 65.099999999999994
-1.320000000000000 15.680000000000000 64.870000000000005
-1.080000000000000 16.129999999999999 64.879999999999995
-0.950000000000000 16.590000000000000 64.890000000000001
-0.590000000000000 16.890000000000001 65.040000000000006
-0.360000000000000 16.969999999999999 65.420000000000002
-0.230000000000000 16.969999999999999 65.299999999999997
-0.010000000000000 16.969999999999999 65.689999999999998
0.360000000000000 17.500000000000000 65.829999999999998
0.580000000000000 17.649999999999999 66.209999999999994
1.070000000000000 17.649999999999999 66.359999999999999
1.570000000000000 18.480000000000000 66.269999999999996
1.820000000000000 18.480000000000000 66.280000000000001
2.180000000000000 18.940000000000001 66.420000000000002
2.320000000000000 18.940000000000001 66.180000000000007
2.440000000000000 19.239999999999998 66.189999999999998
2.820000000000000 19.239999999999998 66.090000000000003
2.940000000000000 19.320000000000000 66.090000000000003
2.950000000000000 19.390000000000001 65.969999999999999
2.950000000000000 19.390000000000001 65.969999999999999
3.100000000000000 19.850000000000001 65.480000000000004
3.630000000000000 20.149999999999999 64.769999999999996
3.770000000000000 20.379999999999999 64.530000000000001
4.020000000000000 20.379999999999999 64.540000000000006
4.410000000000000 20.379999999999999 64.189999999999998
4.660000000000000 20.600000000000001 64.079999999999998
4.910000000000000 20.600000000000001 63.969999999999999
5.050000000000000 20.760000000000002 63.729999999999997
5.320000000000000 20.760000000000002 63.380000000000003
5.580000000000000 20.760000000000002 63.140000000000001
5.840000000000000 20.760000000000002 62.909999999999997
6.210000000000000 21.129999999999999 62.930000000000000
6.480000000000000 21.660000000000000 62.450000000000003
7.420000000000000 21.739999999999998 61.140000000000001
7.580000000000000 21.890000000000001 60.530000000000001
7.980000000000000 21.969999999999999 59.930000000000000
8.359999999999999 21.969999999999999 59.700000000000003
8.359999999999999 21.969999999999999 59.700000000000003
8.630000000000001 21.969999999999999 59.340000000000003
8.890000000000001 22.039999999999999 59.229999999999997
9.240000000000000 22.420000000000002 59.500000000000000
9.260000000000000 22.420000000000002 59.130000000000003
8.910000000000000 22.420000000000002 58.859999999999999
8.789999999999999 22.420000000000002 58.729999999999997
9.060000000000000 22.420000000000002 58.380000000000003
9.199999999999999 22.420000000000002 58.009999999999998
9.580000000000000 22.730000000000000 57.789999999999999
9.880000000000001 23.030000000000001 56.939999999999998
9.890000000000001 23.559999999999999 56.689999999999998
10.050000000000001 23.859999999999999 56.079999999999998
10.210000000000001 24.090000000000000 55.340000000000003
10.109999999999999 24.090000000000000 54.840000000000003
10.109999999999999 24.090000000000000 54.840000000000003
10.150000000000000 24.090000000000000 54.229999999999997
10.160000000000000 24.090000000000000 53.979999999999997
10.180000000000000 24.239999999999998 53.729999999999997
10.180000000000000 24.239999999999998 53.609999999999999
10.440000000000000 24.239999999999998 53.500000000000000
10.460000000000001 24.239999999999998 53.000000000000000
10.460000000000001 24.010000000000002 53.130000000000003
10.480000000000000 24.010000000000002 52.759999999999998
10.500000000000000 24.010000000000002 52.390000000000001
10.500000000000000 24.010000000000002 52.259999999999998
10.520000000000000 24.010000000000002 52.020000000000003
10.520000000000000 24.010000000000002 51.890000000000001
10.529999999999999 24.090000000000000 51.770000000000003
10.050000000000001 24.160000000000000 51.500000000000000
9.430000000000000 24.239999999999998 51.460000000000001
9.720000000000001 24.239999999999998 50.740000000000002
9.710000000000001 24.239999999999998 50.859999999999999
9.730000000000000 24.239999999999998 50.490000000000002
10.119999999999999 24.239999999999998 50.140000000000001
10.119999999999999 24.239999999999998 50.140000000000001
10.260000000000000 24.239999999999998 49.899999999999999
10.529999999999999 24.390000000000001 49.539999999999999
10.529999999999999 24.390000000000001 49.420000000000002
10.660000000000000 24.469999999999999 49.299999999999997
10.789999999999999 24.539999999999999 49.180000000000000
10.810000000000000 24.539999999999999 48.939999999999998
10.820000000000000 24.539999999999999 48.689999999999998
10.830000000000000 24.539999999999999 48.570000000000000
-3.660000000000000 12.949999999999999 64.620000000000005
-4.040000000000000 13.180000000000000 64.719999999999999
-4.160000000000000 12.730000000000000 64.719999999999999
-4.180000000000000 12.570000000000000 64.959999999999994
-4.320000000000000 12.350000000000000 65.329999999999998
-4.090000000000000 12.350000000000000 65.709999999999994
-3.990000000000000 12.039999999999999 66.090000000000003
-3.750000000000000 12.039999999999999 66.230000000000004
-3.530000000000000 11.970000000000001 66.730000000000004
-3.430000000000000 11.970000000000001 67.230000000000004
-3.460000000000000 11.970000000000001 67.730000000000004
-3.460000000000000 11.970000000000001 67.730000000000004
-3.340000000000000 11.970000000000001 67.859999999999999
-3.340000000000000 11.970000000000001 67.859999999999999
-3.370000000000000 11.970000000000001 68.349999999999994
-3.380000000000000 11.890000000000001 68.469999999999999
-3.510000000000000 11.820000000000000 68.709999999999994
-3.650000000000000 11.740000000000000 68.959999999999994
-3.660000000000000 11.820000000000000 69.200000000000003
-3.660000000000000 11.820000000000000 69.200000000000003
-3.810000000000000 11.820000000000000 69.569999999999993
-3.810000000000000 11.820000000000000 69.569999999999993
-3.820000000000000 11.820000000000000 69.810000000000002
-3.820000000000000 11.820000000000000 69.689999999999998
-3.960000000000000 11.820000000000000 70.049999999999997
-4.230000000000000 11.820000000000000 70.409999999999997
-4.380000000000000 11.820000000000000 71.019999999999996
-3.940000000000000 11.510000000000000 71.909999999999997
-3.980000000000000 10.910000000000000 72.650000000000006
-3.390000000000000 9.470000000000001 73.299999999999997
-3.210000000000000 8.710000000000001 74.430000000000007
-2.770000000000000 8.710000000000001 75.439999999999998
-2.540000000000000 8.480000000000000 75.829999999999998
-2.540000000000000 8.560000000000000 75.829999999999998
-2.560000000000000 8.560000000000000 76.200000000000003
-2.440000000000000 8.560000000000000 76.200000000000003
-2.460000000000000 8.560000000000000 76.569999999999993
-2.390000000000000 8.480000000000000 77.569999999999993
-2.660000000000000 8.480000000000000 78.049999999999997
-3.170000000000000 8.480000000000000 78.269999999999996
-3.320000000000000 8.480000000000000 78.760000000000005
-3.080000000000000 8.480000000000000 79.019999999999996
-3.110000000000000 8.480000000000000 79.390000000000001
-2.740000000000000 8.480000000000000 79.530000000000001
-2.630000000000000 8.480000000000000 79.780000000000001
-2.400000000000000 8.480000000000000 80.170000000000002
-2.030000000000000 8.480000000000000 80.189999999999998
-2.050000000000000 8.480000000000000 80.560000000000002
-1.980000000000000 8.480000000000000 81.430000000000007
-2.530000000000000 8.330000000000000 82.390000000000001
-2.660000000000000 8.109999999999999 82.629999999999995
-2.310000000000000 8.180000000000000 83.019999999999996
-2.600000000000000 8.410000000000000 83.750000000000000
-2.500000000000000 8.480000000000000 84.129999999999995
-2.640000000000000 8.480000000000000 84.489999999999995
-2.650000000000000 8.480000000000000 84.609999999999999
-2.290000000000000 8.480000000000000 84.879999999999995
-2.910000000000000 8.480000000000000 84.849999999999994
-3.030000000000000 8.480000000000000 84.840000000000003
-3.410000000000000 8.480000000000000 85.069999999999993
-3.670000000000000 8.480000000000000 85.180000000000007
-3.920000000000000 8.480000000000000 85.290000000000006
-3.920000000000000 8.480000000000000 85.290000000000006
-4.180000000000000 8.480000000000000 85.400000000000006
-4.680000000000000 8.480000000000000 85.620000000000005
-5.050000000000000 8.480000000000000 85.599999999999994
-5.190000000000000 8.480000000000000 85.840000000000003
-5.440000000000000 8.480000000000000 85.950000000000003
-5.710000000000000 8.480000000000000 86.299999999999997
-5.700000000000000 8.560000000000000 86.060000000000002
-6.310000000000000 10.230000000000000 85.900000000000006
-6.660000000000000 10.680000000000000 85.629999999999995
-7.030000000000000 10.980000000000000 85.489999999999995
-7.400000000000000 11.060000000000000 85.469999999999999
-7.390000000000000 11.140000000000001 85.349999999999994
-7.750000000000000 12.199999999999999 85.200000000000003
-8.119999999999999 13.100000000000000 85.060000000000002
-8.470000000000001 13.260000000000000 84.790000000000006
-9.080000000000000 13.560000000000000 84.510000000000005
-9.430000000000000 14.010000000000000 84.120000000000005
-9.670000000000000 14.850000000000000 83.980000000000004
-9.890000000000001 15.300000000000001 83.480000000000004
-9.770000000000000 15.300000000000001 83.480000000000004
-10.130000000000001 15.300000000000001 83.340000000000003
-10.369999999999999 15.600000000000000 83.200000000000003
-10.490000000000000 15.600000000000000 83.069999999999993
-10.730000000000000 15.600000000000000 82.939999999999998
-10.840000000000000 15.600000000000000 82.810000000000002
-11.070000000000000 15.980000000000000 82.420000000000002
-11.420000000000000 16.359999999999999 82.030000000000001
-11.760000000000000 16.660000000000000 81.519999999999996
-11.730000000000000 16.660000000000000 80.900000000000006
-12.070000000000000 16.820000000000000 80.260000000000005
-12.050000000000001 16.820000000000000 80.019999999999996
-12.029999999999999 16.820000000000000 79.519999999999996
-12.010000000000000 16.820000000000000 79.150000000000006
-12.090000000000000 16.820000000000000 78.400000000000006
-12.070000000000000 17.500000000000000 78.030000000000001
-12.160000000000000 17.500000000000000 77.409999999999997
-12.270000000000000 17.500000000000000 77.159999999999997
-12.230000000000000 18.180000000000000 76.540000000000006
-12.600000000000000 18.180000000000000 76.519999999999996
-12.710000000000001 18.030000000000001 76.260000000000005
-12.710000000000001 18.859999999999999 76.260000000000005
-13.190000000000000 19.239999999999998 75.870000000000005
-12.920000000000000 19.390000000000001 75.510000000000005
-12.900000000000000 19.539999999999999 75.140000000000001
-13.000000000000000 19.620000000000001 74.640000000000001
-12.859999999999999 19.620000000000001 74.400000000000006
-12.980000000000000 19.620000000000001 74.269999999999996
-13.340000000000000 19.690000000000001 74.120000000000005
-13.560000000000000 19.620000000000001 73.620000000000005
-13.660000000000000 19.620000000000001 73.120000000000005
-13.880000000000001 19.620000000000001 72.730000000000004
-13.980000000000000 19.620000000000001 72.230000000000004
-14.340000000000000 19.620000000000001 71.969999999999999
-14.330000000000000 20.000000000000000 71.840000000000003
-14.920000000000000 20.000000000000000 71.310000000000002
-14.910000000000000 20.070000000000000 71.069999999999993
-15.080000000000000 20.000000000000000 69.700000000000003
-14.779999999999999 20.000000000000000 68.719999999999999
-14.380000000000001 20.449999999999999 68.120000000000005
-14.340000000000000 20.600000000000001 67.510000000000005
-14.190000000000000 20.680000000000000 67.019999999999996
-14.050000000000001 20.760000000000002 66.659999999999997
-14.060000000000000 20.760000000000002 66.780000000000001
-13.789999999999999 20.760000000000002 66.420000000000002
-13.890000000000001 20.760000000000002 66.040000000000006
-13.910000000000000 20.829999999999998 66.420000000000002
-13.900000000000000 20.829999999999998 66.170000000000002
-13.760000000000000 21.820000000000000 65.930000000000007
-13.730000000000000 21.820000000000000 65.310000000000002
-13.720000000000001 21.820000000000000 65.189999999999998
-13.720000000000001 21.890000000000001 65.189999999999998
-13.710000000000001 21.890000000000001 64.939999999999998
-13.560000000000000 21.890000000000001 64.579999999999998
-13.550000000000001 21.890000000000001 64.329999999999998
-13.520000000000000 21.969999999999999 63.840000000000003
-13.240000000000000 21.969999999999999 63.229999999999997
-13.240000000000000 21.969999999999999 63.229999999999997
-4.370000000000000 0.760000000000000 28.840000000000000
-4.630000000000000 0.760000000000000 29.079999999999998
-4.890000000000000 0.760000000000000 29.309999999999999
-5.010000000000000 0.760000000000000 29.300000000000001
-5.150000000000000 0.760000000000000 29.539999999999999
-5.280000000000000 2.120000000000000 29.780000000000001
-5.410000000000000 2.120000000000000 29.899999999999999
-5.670000000000000 2.580000000000000 30.129999999999999
-5.760000000000000 3.410000000000000 29.510000000000002
-6.170000000000000 2.500000000000000 30.230000000000000
-6.170000000000000 1.740000000000000 30.230000000000000
-6.430000000000000 1.290000000000000 30.340000000000000
-6.560000000000000 0.830000000000000 30.460000000000001
-6.680000000000000 0.830000000000000 30.449999999999999
-7.050000000000000 0.300000000000000 30.430000000000000
-7.300000000000000 0.300000000000000 30.420000000000002
-7.550000000000000 -0.230000000000000 30.399999999999999
-7.670000000000000 -0.230000000000000 30.399999999999999
-7.910000000000000 -0.150000000000000 30.260000000000002
-8.140000000000001 -0.150000000000000 30.000000000000000
-8.510000000000000 -0.450000000000000 29.980000000000000
-8.750000000000000 -0.450000000000000 29.840000000000000
-8.880000000000001 -0.080000000000000 29.840000000000000
-9.240000000000000 0.300000000000000 29.690000000000001
-9.600000000000000 1.140000000000000 29.550000000000001
-9.730000000000000 1.210000000000000 29.539999999999999
-9.980000000000000 1.590000000000000 29.649999999999999
-10.119999999999999 1.510000000000000 30.020000000000000
-10.380000000000001 0.980000000000000 30.250000000000000
-10.529999999999999 1.440000000000000 30.739999999999998
